   5.5815523e+05   2.4075677e+06   1.0900000e+02
   5.5815187e+05   2.4084900e+06   1.2000000e+02
   5.5814851e+05   2.4094124e+06   1.1800000e+02
   5.5814515e+05   2.4103348e+06   1.0200000e+02
   5.5814179e+05   2.4112572e+06   1.1500000e+02
   5.5813842e+05   2.4121796e+06   1.7100000e+02
   5.5813506e+05   2.4131020e+06   1.5200000e+02
   5.5813169e+05   2.4140244e+06   1.2900000e+02
   5.5812832e+05   2.4149468e+06   1.2700000e+02
   5.5923573e+05   2.3476173e+06   1.3000000e+01
   5.5923240e+05   2.3485397e+06   1.2000000e+01
   5.5922907e+05   2.3494620e+06   1.1000000e+01
   5.5922574e+05   2.3503843e+06   1.1000000e+01
   5.5922241e+05   2.3513067e+06   1.1000000e+01
   5.5921908e+05   2.3522290e+06   1.0000000e+01
   5.5921574e+05   2.3531513e+06   9.0000000e+00
   5.5921241e+05   2.3540737e+06   8.0000000e+00
   5.5920907e+05   2.3549960e+06   1.2000000e+01
   5.5920573e+05   2.3559184e+06   1.6000000e+01
   5.5920239e+05   2.3568407e+06   1.7000000e+01
   5.5919905e+05   2.3577630e+06   1.7000000e+01
   5.5919571e+05   2.3586854e+06   1.5000000e+01
   5.5919237e+05   2.3596077e+06   1.7000000e+01
   5.5918902e+05   2.3605301e+06   2.4000000e+01
   5.5918568e+05   2.3614524e+06   2.7000000e+01
   5.5918233e+05   2.3623748e+06   2.2000000e+01
   5.5917898e+05   2.3632971e+06   2.7000000e+01
   5.5917563e+05   2.3642195e+06   2.5000000e+01
   5.5917228e+05   2.3651418e+06   3.1000000e+01
   5.5916893e+05   2.3660642e+06   3.6000000e+01
   5.5916558e+05   2.3669865e+06   3.3000000e+01
   5.5916223e+05   2.3679089e+06   3.8000000e+01
   5.5915887e+05   2.3688312e+06   3.8000000e+01
   5.5915551e+05   2.3697536e+06   4.9000000e+01
   5.5915215e+05   2.3706759e+06   4.0000000e+01
   5.5914880e+05   2.3715983e+06   3.6000000e+01
   5.5914543e+05   2.3725206e+06   4.6000000e+01
   5.5914207e+05   2.3734430e+06   5.9000000e+01
   5.5913871e+05   2.3743653e+06   8.6000000e+01
   5.5913535e+05   2.3752877e+06   1.0100000e+02
   5.5913198e+05   2.3762101e+06   2.3600000e+02
   5.5912861e+05   2.3771324e+06   2.4600000e+02
   5.5912525e+05   2.3780548e+06   2.4700000e+02
   5.5912188e+05   2.3789771e+06   5.0700000e+02
   5.5911851e+05   2.3798995e+06   8.4900000e+02
   5.5911513e+05   2.3808219e+06   1.1440000e+03
   5.5911176e+05   2.3817442e+06   1.0270000e+03
   5.5910839e+05   2.3826666e+06   9.4200000e+02
   5.5910501e+05   2.3835890e+06   1.1620000e+03
   5.5910163e+05   2.3845113e+06   8.8000000e+02
   5.5909826e+05   2.3854337e+06   5.6400000e+02
   5.5909488e+05   2.3863561e+06   3.5100000e+02
   5.5909150e+05   2.3872784e+06   4.3500000e+02
   5.5908811e+05   2.3882008e+06   4.5200000e+02
   5.5908473e+05   2.3891232e+06   3.2700000e+02
   5.5908135e+05   2.3900456e+06   2.0300000e+02
   5.5907796e+05   2.3909679e+06   1.5000000e+02
   5.5907457e+05   2.3918903e+06   1.3100000e+02
   5.5907119e+05   2.3928127e+06   1.1900000e+02
   5.5906780e+05   2.3937351e+06   1.0300000e+02
   5.5906441e+05   2.3946574e+06   1.0100000e+02
   5.5906102e+05   2.3955798e+06   8.2000000e+01
   5.5905762e+05   2.3965022e+06   9.4000000e+01
   5.5905423e+05   2.3974246e+06   8.8000000e+01
   5.5905083e+05   2.3983470e+06   7.4000000e+01
   5.5904744e+05   2.3992693e+06   7.8000000e+01
   5.5904404e+05   2.4001917e+06   8.1000000e+01
   5.5904064e+05   2.4011141e+06   8.9000000e+01
   5.5903724e+05   2.4020365e+06   9.5000000e+01
   5.5903384e+05   2.4029589e+06   1.3400000e+02
   5.5903043e+05   2.4038813e+06   9.5000000e+01
   5.5902703e+05   2.4048036e+06   8.8000000e+01
   5.5902362e+05   2.4057260e+06   9.8000000e+01
   5.5902022e+05   2.4066484e+06   1.0400000e+02
   5.5901681e+05   2.4075708e+06   1.0600000e+02
   5.5901340e+05   2.4084932e+06   1.2000000e+02
   5.5900999e+05   2.4094156e+06   1.2300000e+02
   5.5900658e+05   2.4103380e+06   1.0300000e+02
   5.5900317e+05   2.4112604e+06   1.1900000e+02
   5.5899975e+05   2.4121828e+06   1.3000000e+02
   5.5899634e+05   2.4131052e+06   1.5700000e+02
   5.5899292e+05   2.4140276e+06   1.3700000e+02
   5.5898950e+05   2.4149500e+06   1.2200000e+02
   5.6010051e+05   2.3476205e+06   1.1000000e+01
   5.6009713e+05   2.3485428e+06   1.5000000e+01
   5.6009375e+05   2.3494651e+06   1.1000000e+01
   5.6009037e+05   2.3503875e+06   1.0000000e+01
   5.6008699e+05   2.3513098e+06   1.1000000e+01
   5.6008361e+05   2.3522322e+06   1.0000000e+01
   5.6008023e+05   2.3531545e+06   1.0000000e+01
   5.6007685e+05   2.3540768e+06   8.0000000e+00
   5.6007346e+05   2.3549992e+06   1.1000000e+01
   5.6007007e+05   2.3559215e+06   1.3000000e+01
   5.6006668e+05   2.3568438e+06   1.2000000e+01
   5.6006330e+05   2.3577662e+06   1.3000000e+01
   5.6005990e+05   2.3586885e+06   1.7000000e+01
   5.6005651e+05   2.3596109e+06   2.6000000e+01
   5.6005312e+05   2.3605332e+06   3.0000000e+01
   5.6004973e+05   2.3614556e+06   2.9000000e+01
   5.6004633e+05   2.3623779e+06   2.3000000e+01
   5.6004293e+05   2.3633003e+06   3.3000000e+01
   5.6003953e+05   2.3642226e+06   2.9000000e+01
   5.6003613e+05   2.3651450e+06   2.8000000e+01
   5.6003273e+05   2.3660673e+06   3.2000000e+01
   5.6002933e+05   2.3669897e+06   3.9000000e+01
   5.6002593e+05   2.3679120e+06   4.0000000e+01
   5.6002252e+05   2.3688344e+06   4.3000000e+01
   5.6001912e+05   2.3697567e+06   4.4000000e+01
   5.6001571e+05   2.3706791e+06   4.3000000e+01
   5.6001230e+05   2.3716014e+06   3.9000000e+01
   5.6000889e+05   2.3725238e+06   6.0000000e+01
   5.6000548e+05   2.3734461e+06   7.2000000e+01
   5.6000207e+05   2.3743685e+06   1.5300000e+02
   5.5999866e+05   2.3752909e+06   2.8800000e+02
   5.5999524e+05   2.3762132e+06   2.6900000e+02
   5.5999183e+05   2.3771356e+06   4.4300000e+02
   5.5998841e+05   2.3780580e+06   3.8400000e+02
   5.5998499e+05   2.3789803e+06   4.3500000e+02
   5.5998157e+05   2.3799027e+06   7.7100000e+02
   5.5997815e+05   2.3808250e+06   1.2230000e+03
   5.5997473e+05   2.3817474e+06   1.1730000e+03
   5.5997130e+05   2.3826698e+06   9.8800000e+02
   5.5996788e+05   2.3835921e+06   7.0700000e+02
   5.5996445e+05   2.3845145e+06   6.9400000e+02
   5.5996103e+05   2.3854369e+06   5.0000000e+02
   5.5995760e+05   2.3863593e+06   2.5600000e+02
   5.5995417e+05   2.3872816e+06   2.1600000e+02
   5.5995074e+05   2.3882040e+06   3.0900000e+02
   5.5994730e+05   2.3891264e+06   2.8300000e+02
   5.5994387e+05   2.3900487e+06   3.0800000e+02
   5.5994044e+05   2.3909711e+06   2.1800000e+02
   5.5993700e+05   2.3918935e+06   1.2100000e+02
   5.5993356e+05   2.3928159e+06   1.2100000e+02
   5.5993012e+05   2.3937382e+06   1.0300000e+02
   5.5992668e+05   2.3946606e+06   9.8000000e+01
   5.5992324e+05   2.3955830e+06   7.9000000e+01
   5.5991980e+05   2.3965054e+06   7.7000000e+01
   5.5991636e+05   2.3974278e+06   7.2000000e+01
   5.5991291e+05   2.3983501e+06   8.6000000e+01
   5.5990946e+05   2.3992725e+06   8.9000000e+01
   5.5990602e+05   2.4001949e+06   8.8000000e+01
   5.5990257e+05   2.4011173e+06   9.3000000e+01
   5.5989912e+05   2.4020397e+06   1.0600000e+02
   5.5989567e+05   2.4029621e+06   1.5000000e+02
   5.5989221e+05   2.4038845e+06   9.7000000e+01
   5.5988876e+05   2.4048069e+06   1.0100000e+02
   5.5988530e+05   2.4057292e+06   1.0100000e+02
   5.5988185e+05   2.4066516e+06   1.0200000e+02
   5.5987839e+05   2.4075740e+06   1.0300000e+02
   5.5987493e+05   2.4084964e+06   9.9000000e+01
   5.5987147e+05   2.4094188e+06   1.0000000e+02
   5.5986801e+05   2.4103412e+06   1.0000000e+02
   5.5986455e+05   2.4112636e+06   1.1200000e+02
   5.5986108e+05   2.4121860e+06   1.1200000e+02
   5.5985762e+05   2.4131084e+06   1.1900000e+02
   5.5985415e+05   2.4140308e+06   1.7300000e+02
   5.5985068e+05   2.4149532e+06   1.1800000e+02
   5.6096529e+05   2.3476237e+06   1.1000000e+01
   5.6096186e+05   2.3485460e+06   1.2000000e+01
   5.6095843e+05   2.3494683e+06   1.0000000e+01
   5.6095501e+05   2.3503907e+06   1.2000000e+01
   5.6095158e+05   2.3513130e+06   1.0000000e+01
   5.6094815e+05   2.3522353e+06   9.0000000e+00
   5.6094472e+05   2.3531577e+06   1.1000000e+01
   5.6094128e+05   2.3540800e+06   9.0000000e+00
   5.6093785e+05   2.3550024e+06   9.0000000e+00
   5.6093441e+05   2.3559247e+06   1.2000000e+01
   5.6093098e+05   2.3568470e+06   1.3000000e+01
   5.6092754e+05   2.3577694e+06   1.5000000e+01
   5.6092410e+05   2.3586917e+06   2.3000000e+01
   5.6092066e+05   2.3596141e+06   2.4000000e+01
   5.6091722e+05   2.3605364e+06   3.6000000e+01
   5.6091377e+05   2.3614588e+06   3.6000000e+01
   5.6091033e+05   2.3623811e+06   2.9000000e+01
   5.6090688e+05   2.3633035e+06   3.0000000e+01
   5.6090343e+05   2.3642258e+06   3.5000000e+01
   5.6089999e+05   2.3651482e+06   3.7000000e+01
   5.6089654e+05   2.3660705e+06   4.2000000e+01
   5.6089309e+05   2.3669929e+06   4.5000000e+01
   5.6088963e+05   2.3679152e+06   4.4000000e+01
   5.6088618e+05   2.3688376e+06   5.7000000e+01
   5.6088273e+05   2.3697599e+06   4.5000000e+01
   5.6087927e+05   2.3706823e+06   5.4000000e+01
   5.6087581e+05   2.3716046e+06   5.3000000e+01
   5.6087235e+05   2.3725270e+06   7.5000000e+01
   5.6086889e+05   2.3734494e+06   2.1100000e+02
   5.6086543e+05   2.3743717e+06   1.9300000e+02
   5.6086197e+05   2.3752941e+06   4.5800000e+02
   5.6085851e+05   2.3762164e+06   5.0100000e+02
   5.6085504e+05   2.3771388e+06   5.3800000e+02
   5.6085157e+05   2.3780612e+06   6.1800000e+02
   5.6084811e+05   2.3789835e+06   4.9300000e+02
   5.6084464e+05   2.3799059e+06   6.3700000e+02
   5.6084117e+05   2.3808283e+06   9.8700000e+02
   5.6083770e+05   2.3817506e+06   1.1510000e+03
   5.6083422e+05   2.3826730e+06   8.2500000e+02
   5.6083075e+05   2.3835954e+06   4.4800000e+02
   5.6082727e+05   2.3845177e+06   2.7600000e+02
   5.6082380e+05   2.3854401e+06   2.2000000e+02
   5.6082032e+05   2.3863625e+06   1.5100000e+02
   5.6081684e+05   2.3872849e+06   1.3100000e+02
   5.6081336e+05   2.3882072e+06   1.4200000e+02
   5.6080988e+05   2.3891296e+06   1.5000000e+02
   5.6080639e+05   2.3900520e+06   1.4800000e+02
   5.6080291e+05   2.3909744e+06   1.5900000e+02
   5.6079942e+05   2.3918967e+06   1.1400000e+02
   5.6079594e+05   2.3928191e+06   1.1400000e+02
   5.6079245e+05   2.3937415e+06   1.0300000e+02
   5.6078896e+05   2.3946639e+06   9.3000000e+01
   5.6078547e+05   2.3955862e+06   8.9000000e+01
   5.6078198e+05   2.3965086e+06   7.3000000e+01
   5.6077848e+05   2.3974310e+06   7.1000000e+01
   5.6077499e+05   2.3983534e+06   9.4000000e+01
   5.6077149e+05   2.3992758e+06   8.9000000e+01
   5.6076800e+05   2.4001982e+06   8.4000000e+01
   5.6076450e+05   2.4011205e+06   1.0000000e+02
   5.6076100e+05   2.4020429e+06   1.0200000e+02
   5.6075750e+05   2.4029653e+06   1.2500000e+02
   5.6075399e+05   2.4038877e+06   1.0400000e+02
   5.6075049e+05   2.4048101e+06   9.9000000e+01
   5.6074699e+05   2.4057325e+06   1.1200000e+02
   5.6074348e+05   2.4066549e+06   1.1500000e+02
   5.6073997e+05   2.4075773e+06   1.5300000e+02
   5.6073646e+05   2.4084997e+06   1.2400000e+02
   5.6073295e+05   2.4094221e+06   1.1500000e+02
   5.6072944e+05   2.4103445e+06   1.2500000e+02
   5.6072593e+05   2.4112669e+06   1.1500000e+02
   5.6072242e+05   2.4121893e+06   1.0700000e+02
   5.6071890e+05   2.4131117e+06   1.0600000e+02
   5.6071538e+05   2.4140340e+06   1.1400000e+02
   5.6071187e+05   2.4149564e+06   1.1600000e+02
   5.6183007e+05   2.3476269e+06   1.0000000e+01
   5.6182659e+05   2.3485492e+06   9.0000000e+00
   5.6182312e+05   2.3494716e+06   8.0000000e+00
   5.6181964e+05   2.3503939e+06   1.1000000e+01
   5.6181616e+05   2.3513162e+06   1.1000000e+01
   5.6181268e+05   2.3522386e+06   9.0000000e+00
   5.6180920e+05   2.3531609e+06   1.1000000e+01
   5.6180572e+05   2.3540833e+06   1.0000000e+01
   5.6180224e+05   2.3550056e+06   8.0000000e+00
   5.6179875e+05   2.3559279e+06   1.4000000e+01
   5.6179527e+05   2.3568503e+06   1.6000000e+01
   5.6179178e+05   2.3577726e+06   1.8000000e+01
   5.6178829e+05   2.3586950e+06   2.5000000e+01
   5.6178480e+05   2.3596173e+06   3.4000000e+01
   5.6178131e+05   2.3605397e+06   3.0000000e+01
   5.6177782e+05   2.3614620e+06   3.7000000e+01
   5.6177433e+05   2.3623844e+06   2.9000000e+01
   5.6177083e+05   2.3633067e+06   2.9000000e+01
   5.6176734e+05   2.3642291e+06   3.5000000e+01
   5.6176384e+05   2.3651514e+06   3.8000000e+01
   5.6176034e+05   2.3660738e+06   4.0000000e+01
   5.6175684e+05   2.3669961e+06   4.1000000e+01
   5.6175334e+05   2.3679185e+06   4.6000000e+01
   5.6174984e+05   2.3688408e+06   4.8000000e+01
   5.6174633e+05   2.3697632e+06   5.8000000e+01
   5.6174283e+05   2.3706856e+06   6.4000000e+01
   5.6173932e+05   2.3716079e+06   9.4000000e+01
   5.6173581e+05   2.3725303e+06   2.2300000e+02
   5.6173230e+05   2.3734526e+06   3.5100000e+02
   5.6172879e+05   2.3743750e+06   2.7500000e+02
   5.6172528e+05   2.3752973e+06   3.6900000e+02
   5.6172177e+05   2.3762197e+06   7.2200000e+02
   5.6171825e+05   2.3771421e+06   7.4200000e+02
   5.6171474e+05   2.3780644e+06   7.6700000e+02
   5.6171122e+05   2.3789868e+06   6.8000000e+02
   5.6170770e+05   2.3799092e+06   6.8800000e+02
   5.6170418e+05   2.3808315e+06   8.6600000e+02
   5.6170066e+05   2.3817539e+06   8.5300000e+02
   5.6169714e+05   2.3826763e+06   7.9200000e+02
   5.6169362e+05   2.3835986e+06   4.9500000e+02
   5.6169009e+05   2.3845210e+06   2.2800000e+02
   5.6168657e+05   2.3854434e+06   1.3600000e+02
   5.6168304e+05   2.3863658e+06   1.1900000e+02
   5.6167951e+05   2.3872881e+06   1.1500000e+02
   5.6167598e+05   2.3882105e+06   1.1300000e+02
   5.6167245e+05   2.3891329e+06   1.2900000e+02
   5.6166892e+05   2.3900553e+06   1.1500000e+02
   5.6166538e+05   2.3909776e+06   1.0300000e+02
   5.6166185e+05   2.3919000e+06   9.9000000e+01
   5.6165831e+05   2.3928224e+06   1.0200000e+02
   5.6165478e+05   2.3937448e+06   9.6000000e+01
   5.6165124e+05   2.3946672e+06   8.3000000e+01
   5.6164770e+05   2.3955895e+06   9.0000000e+01
   5.6164415e+05   2.3965119e+06   7.8000000e+01
   5.6164061e+05   2.3974343e+06   7.4000000e+01
   5.6163707e+05   2.3983567e+06   7.8000000e+01
   5.6163352e+05   2.3992791e+06   8.0000000e+01
   5.6162998e+05   2.4002015e+06   1.0300000e+02
   5.6162643e+05   2.4011238e+06   9.2000000e+01
   5.6162288e+05   2.4020462e+06   1.1100000e+02
   5.6161933e+05   2.4029686e+06   1.0700000e+02
   5.6161578e+05   2.4038910e+06   1.1600000e+02
   5.6161222e+05   2.4048134e+06   9.9000000e+01
   5.6160867e+05   2.4057358e+06   9.7000000e+01
   5.6160511e+05   2.4066582e+06   1.1300000e+02
   5.6160155e+05   2.4075806e+06   1.3100000e+02
   5.6159800e+05   2.4085030e+06   1.3000000e+02
   5.6159444e+05   2.4094254e+06   1.1600000e+02
   5.6159087e+05   2.4103478e+06   1.1900000e+02
   5.6158731e+05   2.4112702e+06   1.4200000e+02
   5.6158375e+05   2.4121926e+06   1.3700000e+02
   5.6158018e+05   2.4131150e+06   1.2500000e+02
   5.6157662e+05   2.4140374e+06   1.2000000e+02
   5.6157305e+05   2.4149598e+06   1.2100000e+02
   5.6269485e+05   2.3476302e+06   9.0000000e+00
   5.6269132e+05   2.3485525e+06   8.0000000e+00
   5.6268780e+05   2.3494749e+06   7.0000000e+00
   5.6268427e+05   2.3503972e+06   8.0000000e+00
   5.6268075e+05   2.3513195e+06   8.0000000e+00
   5.6267722e+05   2.3522419e+06   8.0000000e+00
   5.6267369e+05   2.3531642e+06   9.0000000e+00
   5.6267016e+05   2.3540866e+06   1.0000000e+01
   5.6266663e+05   2.3550089e+06   9.0000000e+00
   5.6266310e+05   2.3559312e+06   1.4000000e+01
   5.6265956e+05   2.3568536e+06   1.5000000e+01
   5.6265603e+05   2.3577759e+06   1.5000000e+01
   5.6265249e+05   2.3586983e+06   2.8000000e+01
   5.6264895e+05   2.3596206e+06   3.9000000e+01
   5.6264541e+05   2.3605430e+06   4.4000000e+01
   5.6264187e+05   2.3614653e+06   2.9000000e+01
   5.6263833e+05   2.3623877e+06   2.2000000e+01
   5.6263478e+05   2.3633100e+06   2.4000000e+01
   5.6263124e+05   2.3642324e+06   2.7000000e+01
   5.6262769e+05   2.3651547e+06   2.9000000e+01
   5.6262414e+05   2.3660771e+06   3.3000000e+01
   5.6262060e+05   2.3669994e+06   3.8000000e+01
   5.6261705e+05   2.3679218e+06   4.2000000e+01
   5.6261349e+05   2.3688441e+06   5.0000000e+01
   5.6260994e+05   2.3697665e+06   6.0000000e+01
   5.6260639e+05   2.3706889e+06   9.3000000e+01
   5.6260283e+05   2.3716112e+06   2.4100000e+02
   5.6259927e+05   2.3725336e+06   4.3700000e+02
   5.6259572e+05   2.3734559e+06   4.6900000e+02
   5.6259216e+05   2.3743783e+06   4.2700000e+02
   5.6258860e+05   2.3753007e+06   3.9500000e+02
   5.6258503e+05   2.3762230e+06   7.7800000e+02
   5.6258147e+05   2.3771454e+06   1.0480000e+03
   5.6257791e+05   2.3780678e+06   1.0200000e+03
   5.6257434e+05   2.3789901e+06   8.9500000e+02
   5.6257077e+05   2.3799125e+06   9.0700000e+02
   5.6256720e+05   2.3808349e+06   8.8900000e+02
   5.6256363e+05   2.3817572e+06   6.5300000e+02
   5.6256006e+05   2.3826796e+06   8.0600000e+02
   5.6255649e+05   2.3836020e+06   4.9600000e+02
   5.6255292e+05   2.3845243e+06   2.0700000e+02
   5.6254934e+05   2.3854467e+06   1.2400000e+02
   5.6254576e+05   2.3863691e+06   1.3500000e+02
   5.6254219e+05   2.3872915e+06   1.0900000e+02
   5.6253861e+05   2.3882138e+06   1.0300000e+02
   5.6253503e+05   2.3891362e+06   1.0800000e+02
   5.6253144e+05   2.3900586e+06   9.7000000e+01
   5.6252786e+05   2.3909810e+06   9.1000000e+01
   5.6252428e+05   2.3919033e+06   8.9000000e+01
   5.6252069e+05   2.3928257e+06   9.5000000e+01
   5.6251710e+05   2.3937481e+06   8.6000000e+01
   5.6251351e+05   2.3946705e+06   7.9000000e+01
   5.6250993e+05   2.3955929e+06   7.9000000e+01
   5.6250633e+05   2.3965152e+06   7.0000000e+01
   5.6250274e+05   2.3974376e+06   7.3000000e+01
   5.6249915e+05   2.3983600e+06   7.3000000e+01
   5.6249555e+05   2.3992824e+06   8.1000000e+01
   5.6249196e+05   2.4002048e+06   1.0500000e+02
   5.6248836e+05   2.4011272e+06   1.0100000e+02
   5.6248476e+05   2.4020496e+06   9.6000000e+01
   5.6248116e+05   2.4029720e+06   1.1400000e+02
   5.6247756e+05   2.4038944e+06   1.1400000e+02
   5.6247395e+05   2.4048167e+06   1.3500000e+02
   5.6247035e+05   2.4057391e+06   9.8000000e+01
   5.6246674e+05   2.4066615e+06   1.2800000e+02
   5.6246314e+05   2.4075839e+06   1.1000000e+02
   5.6245953e+05   2.4085063e+06   1.2900000e+02
   5.6245592e+05   2.4094287e+06   1.3200000e+02
   5.6245231e+05   2.4103511e+06   1.1100000e+02
   5.6244870e+05   2.4112735e+06   1.2100000e+02
   5.6244508e+05   2.4121959e+06   1.3000000e+02
   5.6244147e+05   2.4131183e+06   1.5300000e+02
   5.6243785e+05   2.4140407e+06   1.4800000e+02
   5.6243423e+05   2.4149631e+06   1.5100000e+02
   5.6355963e+05   2.3476335e+06   1.1000000e+01
   5.6355606e+05   2.3485558e+06   1.3000000e+01
   5.6355248e+05   2.3494782e+06   1.1000000e+01
   5.6354891e+05   2.3504005e+06   1.0000000e+01
   5.6354533e+05   2.3513229e+06   8.0000000e+00
   5.6354176e+05   2.3522452e+06   8.0000000e+00
   5.6353818e+05   2.3531675e+06   1.0000000e+01
   5.6353460e+05   2.3540899e+06   1.1000000e+01
   5.6353102e+05   2.3550122e+06   9.0000000e+00
   5.6352744e+05   2.3559346e+06   1.1000000e+01
   5.6352386e+05   2.3568569e+06   1.1000000e+01
   5.6352027e+05   2.3577793e+06   1.8000000e+01
   5.6351668e+05   2.3587016e+06   2.4000000e+01
   5.6351310e+05   2.3596240e+06   3.7000000e+01
   5.6350951e+05   2.3605463e+06   7.5000000e+01
   5.6350592e+05   2.3614687e+06   2.7000000e+01
   5.6350233e+05   2.3623910e+06   2.4000000e+01
   5.6349874e+05   2.3633134e+06   2.3000000e+01
   5.6349514e+05   2.3642357e+06   2.7000000e+01
   5.6349155e+05   2.3651581e+06   3.2000000e+01
   5.6348795e+05   2.3660804e+06   3.7000000e+01
   5.6348435e+05   2.3670028e+06   4.1000000e+01
   5.6348075e+05   2.3679251e+06   4.4000000e+01
   5.6347715e+05   2.3688475e+06   6.4000000e+01
   5.6347355e+05   2.3697698e+06   1.3900000e+02
   5.6346995e+05   2.3706922e+06   2.9400000e+02
   5.6346634e+05   2.3716146e+06   2.3000000e+02
   5.6346274e+05   2.3725369e+06   4.7300000e+02
   5.6345913e+05   2.3734593e+06   7.3400000e+02
   5.6345552e+05   2.3743817e+06   6.7100000e+02
   5.6345191e+05   2.3753040e+06   4.6300000e+02
   5.6344830e+05   2.3762264e+06   7.5500000e+02
   5.6344469e+05   2.3771487e+06   1.1010000e+03
   5.6344107e+05   2.3780711e+06   1.2460000e+03
   5.6343746e+05   2.3789935e+06   1.0610000e+03
   5.6343384e+05   2.3799158e+06   7.5000000e+02
   5.6343022e+05   2.3808382e+06   5.8500000e+02
   5.6342660e+05   2.3817606e+06   4.5100000e+02
   5.6342298e+05   2.3826830e+06   3.8100000e+02
   5.6341936e+05   2.3836053e+06   2.1700000e+02
   5.6341574e+05   2.3845277e+06   1.2900000e+02
   5.6341211e+05   2.3854501e+06   1.0500000e+02
   5.6340849e+05   2.3863725e+06   1.6100000e+02
   5.6340486e+05   2.3872948e+06   1.2300000e+02
   5.6340123e+05   2.3882172e+06   1.0100000e+02
   5.6339760e+05   2.3891396e+06   9.5000000e+01
   5.6339397e+05   2.3900620e+06   9.2000000e+01
   5.6339034e+05   2.3909843e+06   8.4000000e+01
   5.6338670e+05   2.3919067e+06   8.0000000e+01
   5.6338307e+05   2.3928291e+06   8.1000000e+01
   5.6337943e+05   2.3937515e+06   7.5000000e+01
   5.6337579e+05   2.3946739e+06   7.2000000e+01
   5.6337215e+05   2.3955962e+06   7.0000000e+01
   5.6336851e+05   2.3965186e+06   6.7000000e+01
   5.6336487e+05   2.3974410e+06   7.0000000e+01
   5.6336123e+05   2.3983634e+06   7.3000000e+01
   5.6335758e+05   2.3992858e+06   8.8000000e+01
   5.6335394e+05   2.4002082e+06   1.6000000e+02
   5.6335029e+05   2.4011306e+06   1.2800000e+02
   5.6334664e+05   2.4020530e+06   1.1500000e+02
   5.6334299e+05   2.4029753e+06   1.1600000e+02
   5.6333934e+05   2.4038977e+06   1.1200000e+02
   5.6333569e+05   2.4048201e+06   1.0400000e+02
   5.6333203e+05   2.4057425e+06   1.1400000e+02
   5.6332838e+05   2.4066649e+06   1.0200000e+02
   5.6332472e+05   2.4075873e+06   1.2900000e+02
   5.6332106e+05   2.4085097e+06   9.8000000e+01
   5.6331740e+05   2.4094321e+06   1.3500000e+02
   5.6331374e+05   2.4103545e+06   1.1500000e+02
   5.6331008e+05   2.4112769e+06   1.0700000e+02
   5.6330642e+05   2.4121993e+06   1.3100000e+02
   5.6330275e+05   2.4131217e+06   1.4000000e+02
   5.6329909e+05   2.4140441e+06   1.4200000e+02
   5.6329542e+05   2.4149665e+06   1.5400000e+02
   5.6442441e+05   2.3476369e+06   1.1000000e+01
   5.6442079e+05   2.3485592e+06   1.1000000e+01
   5.6441717e+05   2.3494816e+06   1.3000000e+01
   5.6441354e+05   2.3504039e+06   1.1000000e+01
   5.6440992e+05   2.3513262e+06   9.0000000e+00
   5.6440630e+05   2.3522486e+06   8.0000000e+00
   5.6440267e+05   2.3531709e+06   9.0000000e+00
   5.6439904e+05   2.3540933e+06   1.0000000e+01
   5.6439541e+05   2.3550156e+06   1.6000000e+01
   5.6439178e+05   2.3559380e+06   1.8000000e+01
   5.6438815e+05   2.3568603e+06   2.0000000e+01
   5.6438452e+05   2.3577826e+06   1.7000000e+01
   5.6438088e+05   2.3587050e+06   2.5000000e+01
   5.6437725e+05   2.3596273e+06   4.0000000e+01
   5.6437361e+05   2.3605497e+06   3.4000000e+01
   5.6436997e+05   2.3614720e+06   1.9000000e+01
   5.6436633e+05   2.3623944e+06   2.2000000e+01
   5.6436269e+05   2.3633167e+06   2.6000000e+01
   5.6435905e+05   2.3642391e+06   3.3000000e+01
   5.6435540e+05   2.3651615e+06   3.9000000e+01
   5.6435176e+05   2.3660838e+06   4.3000000e+01
   5.6434811e+05   2.3670062e+06   6.4000000e+01
   5.6434446e+05   2.3679285e+06   7.4000000e+01
   5.6434081e+05   2.3688509e+06   1.3300000e+02
   5.6433716e+05   2.3697732e+06   2.4000000e+02
   5.6433351e+05   2.3706956e+06   2.7700000e+02
   5.6432986e+05   2.3716180e+06   4.2900000e+02
   5.6432620e+05   2.3725403e+06   3.8600000e+02
   5.6432254e+05   2.3734627e+06   6.4400000e+02
   5.6431889e+05   2.3743851e+06   8.5200000e+02
   5.6431523e+05   2.3753074e+06   6.8700000e+02
   5.6431157e+05   2.3762298e+06   8.6700000e+02
   5.6430791e+05   2.3771522e+06   1.1000000e+03
   5.6430424e+05   2.3780745e+06   1.0650000e+03
   5.6430058e+05   2.3789969e+06   6.8600000e+02
   5.6429691e+05   2.3799193e+06   4.1700000e+02
   5.6429324e+05   2.3808416e+06   4.3800000e+02
   5.6428958e+05   2.3817640e+06   3.4400000e+02
   5.6428591e+05   2.3826864e+06   2.1100000e+02
   5.6428223e+05   2.3836087e+06   1.1700000e+02
   5.6427856e+05   2.3845311e+06   9.1000000e+01
   5.6427489e+05   2.3854535e+06   8.8000000e+01
   5.6427121e+05   2.3863759e+06   1.3000000e+02
   5.6426754e+05   2.3872982e+06   1.1100000e+02
   5.6426386e+05   2.3882206e+06   1.2400000e+02
   5.6426018e+05   2.3891430e+06   9.4000000e+01
   5.6425650e+05   2.3900654e+06   8.1000000e+01
   5.6425282e+05   2.3909878e+06   7.5000000e+01
   5.6424913e+05   2.3919101e+06   7.3000000e+01
   5.6424545e+05   2.3928325e+06   7.4000000e+01
   5.6424176e+05   2.3937549e+06   6.5000000e+01
   5.6423807e+05   2.3946773e+06   7.3000000e+01
   5.6423439e+05   2.3955997e+06   8.1000000e+01
   5.6423070e+05   2.3965221e+06   7.6000000e+01
   5.6422700e+05   2.3974444e+06   7.9000000e+01
   5.6422331e+05   2.3983668e+06   8.1000000e+01
   5.6421962e+05   2.3992892e+06   9.3000000e+01
   5.6421592e+05   2.4002116e+06   1.4900000e+02
   5.6421222e+05   2.4011340e+06   2.0000000e+02
   5.6420853e+05   2.4020564e+06   1.4700000e+02
   5.6420483e+05   2.4029788e+06   1.1500000e+02
   5.6420112e+05   2.4039012e+06   9.7000000e+01
   5.6419742e+05   2.4048236e+06   9.0000000e+01
   5.6419372e+05   2.4057460e+06   9.5000000e+01
   5.6419001e+05   2.4066684e+06   9.1000000e+01
   5.6418631e+05   2.4075908e+06   1.0300000e+02
   5.6418260e+05   2.4085132e+06   1.0000000e+02
   5.6417889e+05   2.4094356e+06   9.9000000e+01
   5.6417518e+05   2.4103580e+06   1.0100000e+02
   5.6417147e+05   2.4112804e+06   9.8000000e+01
   5.6416775e+05   2.4122028e+06   1.0500000e+02
   5.6416404e+05   2.4131252e+06   1.0900000e+02
   5.6416032e+05   2.4140476e+06   1.3400000e+02
   5.6415661e+05   2.4149700e+06   1.3300000e+02
   5.6528919e+05   2.3476403e+06   1.1000000e+01
   5.6528552e+05   2.3485626e+06   1.1000000e+01
   5.6528185e+05   2.3494850e+06   1.2000000e+01
   5.6527818e+05   2.3504073e+06   1.1000000e+01
   5.6527451e+05   2.3513297e+06   1.0000000e+01
   5.6527084e+05   2.3522520e+06   7.0000000e+00
   5.6526716e+05   2.3531743e+06   9.0000000e+00
   5.6526348e+05   2.3540967e+06   1.3000000e+01
   5.6525981e+05   2.3550190e+06   1.6000000e+01
   5.6525613e+05   2.3559414e+06   2.2000000e+01
   5.6525245e+05   2.3568637e+06   2.9000000e+01
   5.6524876e+05   2.3577861e+06   2.4000000e+01
   5.6524508e+05   2.3587084e+06   2.6000000e+01
   5.6524140e+05   2.3596308e+06   1.7000000e+01
   5.6523771e+05   2.3605531e+06   1.8000000e+01
   5.6523402e+05   2.3614755e+06   2.1000000e+01
   5.6523033e+05   2.3623978e+06   2.3000000e+01
   5.6522664e+05   2.3633202e+06   2.9000000e+01
   5.6522295e+05   2.3642425e+06   3.8000000e+01
   5.6521926e+05   2.3651649e+06   4.1000000e+01
   5.6521556e+05   2.3660873e+06   4.6000000e+01
   5.6521187e+05   2.3670096e+06   6.0000000e+01
   5.6520817e+05   2.3679320e+06   1.5400000e+02
   5.6520447e+05   2.3688543e+06   2.2100000e+02
   5.6520077e+05   2.3697767e+06   1.8500000e+02
   5.6519707e+05   2.3706990e+06   2.6900000e+02
   5.6519337e+05   2.3716214e+06   5.2700000e+02
   5.6518966e+05   2.3725438e+06   4.9500000e+02
   5.6518596e+05   2.3734661e+06   5.4100000e+02
   5.6518225e+05   2.3743885e+06   8.8400000e+02
   5.6517854e+05   2.3753109e+06   1.1140000e+03
   5.6517483e+05   2.3762332e+06   1.1110000e+03
   5.6517112e+05   2.3771556e+06   1.1700000e+03
   5.6516741e+05   2.3780780e+06   1.0670000e+03
   5.6516370e+05   2.3790003e+06   5.6400000e+02
   5.6515998e+05   2.3799227e+06   3.0100000e+02
   5.6515627e+05   2.3808451e+06   2.2800000e+02
   5.6515255e+05   2.3817675e+06   3.7200000e+02
   5.6514883e+05   2.3826898e+06   2.7700000e+02
   5.6514511e+05   2.3836122e+06   9.9000000e+01
   5.6514139e+05   2.3845346e+06   7.6000000e+01
   5.6513766e+05   2.3854569e+06   7.7000000e+01
   5.6513394e+05   2.3863793e+06   1.2500000e+02
   5.6513021e+05   2.3873017e+06   7.8000000e+01
   5.6512649e+05   2.3882241e+06   6.9000000e+01
   5.6512276e+05   2.3891465e+06   7.4000000e+01
   5.6511903e+05   2.3900688e+06   7.5000000e+01
   5.6511530e+05   2.3909912e+06   7.1000000e+01
   5.6511156e+05   2.3919136e+06   6.7000000e+01
   5.6510783e+05   2.3928360e+06   6.4000000e+01
   5.6510409e+05   2.3937584e+06   6.2000000e+01
   5.6510036e+05   2.3946808e+06   7.0000000e+01
   5.6509662e+05   2.3956031e+06   7.7000000e+01
   5.6509288e+05   2.3965255e+06   8.2000000e+01
   5.6508914e+05   2.3974479e+06   9.2000000e+01
   5.6508539e+05   2.3983703e+06   1.1300000e+02
   5.6508165e+05   2.3992927e+06   9.4000000e+01
   5.6507790e+05   2.4002151e+06   1.2200000e+02
   5.6507416e+05   2.4011375e+06   2.5500000e+02
   5.6507041e+05   2.4020599e+06   2.2400000e+02
   5.6506666e+05   2.4029823e+06   1.4500000e+02
   5.6506291e+05   2.4039047e+06   1.1000000e+02
   5.6505916e+05   2.4048271e+06   1.0500000e+02
   5.6505540e+05   2.4057494e+06   9.3000000e+01
   5.6505165e+05   2.4066718e+06   8.1000000e+01
   5.6504789e+05   2.4075942e+06   9.9000000e+01
   5.6504414e+05   2.4085166e+06   1.1700000e+02
   5.6504038e+05   2.4094390e+06   1.4000000e+02
   5.6503662e+05   2.4103614e+06   1.1900000e+02
   5.6503285e+05   2.4112838e+06   1.2000000e+02
   5.6502909e+05   2.4122062e+06   1.0900000e+02
   5.6502533e+05   2.4131286e+06   1.1100000e+02
   5.6502156e+05   2.4140511e+06   1.1400000e+02
   5.6501779e+05   2.4149735e+06   1.5800000e+02
   5.6615397e+05   2.3476438e+06   1.1000000e+01
   5.6615026e+05   2.3485661e+06   1.1000000e+01
   5.6614654e+05   2.3494884e+06   1.1000000e+01
   5.6614282e+05   2.3504108e+06   1.1000000e+01
   5.6613910e+05   2.3513331e+06   9.0000000e+00
   5.6613538e+05   2.3522555e+06   8.0000000e+00
   5.6613165e+05   2.3531778e+06   1.0000000e+01
   5.6612793e+05   2.3541002e+06   1.7000000e+01
   5.6612420e+05   2.3550225e+06   2.2000000e+01
   5.6612047e+05   2.3559448e+06   3.3000000e+01
   5.6611674e+05   2.3568672e+06   4.5000000e+01
   5.6611301e+05   2.3577895e+06   3.0000000e+01
   5.6610928e+05   2.3587119e+06   1.5000000e+01
   5.6610555e+05   2.3596342e+06   1.5000000e+01
   5.6610181e+05   2.3605566e+06   1.7000000e+01
   5.6609808e+05   2.3614790e+06   2.4000000e+01
   5.6609434e+05   2.3624013e+06   2.7000000e+01
   5.6609060e+05   2.3633237e+06   2.7000000e+01
   5.6608686e+05   2.3642460e+06   3.4000000e+01
   5.6608312e+05   2.3651684e+06   4.0000000e+01
   5.6607937e+05   2.3660907e+06   6.5000000e+01
   5.6607563e+05   2.3670131e+06   1.1800000e+02
   5.6607188e+05   2.3679355e+06   3.0600000e+02
   5.6606813e+05   2.3688578e+06   3.1500000e+02
   5.6606439e+05   2.3697802e+06   3.9300000e+02
   5.6606063e+05   2.3707025e+06   4.7500000e+02
   5.6605688e+05   2.3716249e+06   5.4700000e+02
   5.6605313e+05   2.3725473e+06   7.6000000e+02
   5.6604938e+05   2.3734696e+06   7.8900000e+02
   5.6604562e+05   2.3743920e+06   9.0300000e+02
   5.6604186e+05   2.3753144e+06   8.2500000e+02
   5.6603810e+05   2.3762367e+06   9.9200000e+02
   5.6603434e+05   2.3771591e+06   1.1820000e+03
   5.6603058e+05   2.3780815e+06   9.2400000e+02
   5.6602682e+05   2.3790038e+06   6.4200000e+02
   5.6602306e+05   2.3799262e+06   4.8200000e+02
   5.6601929e+05   2.3808486e+06   2.3900000e+02
   5.6601552e+05   2.3817710e+06   3.2800000e+02
   5.6601175e+05   2.3826933e+06   2.2900000e+02
   5.6600798e+05   2.3836157e+06   7.9000000e+01
   5.6600421e+05   2.3845381e+06   6.7000000e+01
   5.6600044e+05   2.3854605e+06   6.8000000e+01
   5.6599667e+05   2.3863828e+06   1.0000000e+02
   5.6599289e+05   2.3873052e+06   8.2000000e+01
   5.6598911e+05   2.3882276e+06   6.4000000e+01
   5.6598534e+05   2.3891500e+06   6.5000000e+01
   5.6598156e+05   2.3900724e+06   6.6000000e+01
   5.6597778e+05   2.3909947e+06   6.3000000e+01
   5.6597399e+05   2.3919171e+06   6.2000000e+01
   5.6597021e+05   2.3928395e+06   5.8000000e+01
   5.6596642e+05   2.3937619e+06   7.8000000e+01
   5.6596264e+05   2.3946843e+06   8.4000000e+01
   5.6595885e+05   2.3956067e+06   9.4000000e+01
   5.6595506e+05   2.3965290e+06   8.2000000e+01
   5.6595127e+05   2.3974514e+06   9.3000000e+01
   5.6594748e+05   2.3983738e+06   1.0900000e+02
   5.6594368e+05   2.3992962e+06   9.1000000e+01
   5.6593989e+05   2.4002186e+06   1.1600000e+02
   5.6593609e+05   2.4011410e+06   2.1700000e+02
   5.6593230e+05   2.4020634e+06   3.4800000e+02
   5.6592850e+05   2.4029858e+06   1.5800000e+02
   5.6592470e+05   2.4039082e+06   1.3600000e+02
   5.6592089e+05   2.4048306e+06   1.0400000e+02
   5.6591709e+05   2.4057530e+06   8.8000000e+01
   5.6591329e+05   2.4066754e+06   7.9000000e+01
   5.6590948e+05   2.4075978e+06   1.0200000e+02
   5.6590567e+05   2.4085202e+06   9.9000000e+01
   5.6590186e+05   2.4094426e+06   1.3900000e+02
   5.6589805e+05   2.4103650e+06   1.4800000e+02
   5.6589424e+05   2.4112874e+06   1.6400000e+02
   5.6589043e+05   2.4122098e+06   1.3700000e+02
   5.6588662e+05   2.4131322e+06   1.1800000e+02
   5.6588280e+05   2.4140546e+06   1.1300000e+02
   5.6587898e+05   2.4149770e+06   1.4700000e+02
   5.6701876e+05   2.3476473e+06   1.2000000e+01
   5.6701499e+05   2.3485696e+06   1.2000000e+01
   5.6701123e+05   2.3494919e+06   1.0000000e+01
   5.6700746e+05   2.3504143e+06   9.0000000e+00
   5.6700369e+05   2.3513366e+06   9.0000000e+00
   5.6699992e+05   2.3522590e+06   1.0000000e+01
   5.6699615e+05   2.3531813e+06   1.3000000e+01
   5.6699237e+05   2.3541037e+06   1.4000000e+01
   5.6698860e+05   2.3550260e+06   1.8000000e+01
   5.6698482e+05   2.3559484e+06   1.7000000e+01
   5.6698104e+05   2.3568707e+06   1.4000000e+01
   5.6697726e+05   2.3577931e+06   1.2000000e+01
   5.6697348e+05   2.3587154e+06   1.2000000e+01
   5.6696970e+05   2.3596378e+06   1.5000000e+01
   5.6696591e+05   2.3605601e+06   1.6000000e+01
   5.6696213e+05   2.3614825e+06   1.8000000e+01
   5.6695834e+05   2.3624048e+06   2.8000000e+01
   5.6695455e+05   2.3633272e+06   3.1000000e+01
   5.6695077e+05   2.3642495e+06   3.6000000e+01
   5.6694697e+05   2.3651719e+06   6.0000000e+01
   5.6694318e+05   2.3660943e+06   2.1500000e+02
   5.6693939e+05   2.3670166e+06   1.7200000e+02
   5.6693559e+05   2.3679390e+06   1.3900000e+02
   5.6693180e+05   2.3688613e+06   2.4800000e+02
   5.6692800e+05   2.3697837e+06   4.4600000e+02
   5.6692420e+05   2.3707061e+06   7.1300000e+02
   5.6692040e+05   2.3716284e+06   8.2900000e+02
   5.6691660e+05   2.3725508e+06   9.4400000e+02
   5.6691279e+05   2.3734732e+06   1.1040000e+03
   5.6690899e+05   2.3743955e+06   8.0500000e+02
   5.6690518e+05   2.3753179e+06   4.8700000e+02
   5.6690137e+05   2.3762403e+06   6.2200000e+02
   5.6689756e+05   2.3771626e+06   7.8300000e+02
   5.6689375e+05   2.3780850e+06   4.9300000e+02
   5.6688994e+05   2.3790074e+06   3.0000000e+02
   5.6688613e+05   2.3799298e+06   3.2900000e+02
   5.6688231e+05   2.3808521e+06   1.3600000e+02
   5.6687850e+05   2.3817745e+06   1.2600000e+02
   5.6687468e+05   2.3826969e+06   8.9000000e+01
   5.6687086e+05   2.3836193e+06   6.6000000e+01
   5.6686704e+05   2.3845416e+06   6.3000000e+01
   5.6686322e+05   2.3854640e+06   6.2000000e+01
   5.6685939e+05   2.3863864e+06   1.1200000e+02
   5.6685557e+05   2.3873088e+06   9.9000000e+01
   5.6685174e+05   2.3882311e+06   5.8000000e+01
   5.6684792e+05   2.3891535e+06   5.9000000e+01
   5.6684409e+05   2.3900759e+06   6.1000000e+01
   5.6684026e+05   2.3909983e+06   5.7000000e+01
   5.6683643e+05   2.3919207e+06   5.5000000e+01
   5.6683259e+05   2.3928431e+06   5.6000000e+01
   5.6682876e+05   2.3937655e+06   1.0800000e+02
   5.6682492e+05   2.3946878e+06   8.5000000e+01
   5.6682108e+05   2.3956102e+06   9.2000000e+01
   5.6681724e+05   2.3965326e+06   9.9000000e+01
   5.6681340e+05   2.3974550e+06   8.8000000e+01
   5.6680956e+05   2.3983774e+06   9.3000000e+01
   5.6680572e+05   2.3992998e+06   1.1800000e+02
   5.6680188e+05   2.4002222e+06   1.8600000e+02
   5.6679803e+05   2.4011446e+06   2.4100000e+02
   5.6679418e+05   2.4020670e+06   3.2400000e+02
   5.6679033e+05   2.4029894e+06   2.2100000e+02
   5.6678648e+05   2.4039118e+06   1.4000000e+02
   5.6678263e+05   2.4048342e+06   1.0700000e+02
   5.6677878e+05   2.4057566e+06   8.7000000e+01
   5.6677492e+05   2.4066790e+06   7.4000000e+01
   5.6677107e+05   2.4076014e+06   7.3000000e+01
   5.6676721e+05   2.4085238e+06   8.2000000e+01
   5.6676335e+05   2.4094462e+06   9.8000000e+01
   5.6675949e+05   2.4103686e+06   1.1900000e+02
   5.6675563e+05   2.4112910e+06   1.5400000e+02
   5.6675177e+05   2.4122134e+06   1.6500000e+02
   5.6674791e+05   2.4131358e+06   1.4600000e+02
   5.6674404e+05   2.4140582e+06   1.0900000e+02
   5.6674017e+05   2.4149806e+06   1.3400000e+02
   5.6788355e+05   2.3476508e+06   1.3000000e+01
   5.6787973e+05   2.3485732e+06   1.2000000e+01
   5.6787592e+05   2.3494955e+06   1.0000000e+01
   5.6787210e+05   2.3504178e+06   8.0000000e+00
   5.6786828e+05   2.3513402e+06   1.0000000e+01
   5.6786446e+05   2.3522625e+06   1.3000000e+01
   5.6786064e+05   2.3531849e+06   1.2000000e+01
   5.6785682e+05   2.3541072e+06   1.4000000e+01
   5.6785299e+05   2.3550296e+06   1.2000000e+01
   5.6784917e+05   2.3559519e+06   1.1000000e+01
   5.6784534e+05   2.3568743e+06   1.0000000e+01
   5.6784151e+05   2.3577966e+06   1.2000000e+01
   5.6783768e+05   2.3587190e+06   1.4000000e+01
   5.6783385e+05   2.3596413e+06   1.4000000e+01
   5.6783002e+05   2.3605637e+06   1.8000000e+01
   5.6782618e+05   2.3614860e+06   1.8000000e+01
   5.6782235e+05   2.3624084e+06   2.2000000e+01
   5.6781851e+05   2.3633308e+06   3.3000000e+01
   5.6781467e+05   2.3642531e+06   4.7000000e+01
   5.6781083e+05   2.3651755e+06   1.2900000e+02
   5.6780699e+05   2.3660978e+06   2.5100000e+02
   5.6780315e+05   2.3670202e+06   2.1300000e+02
   5.6779931e+05   2.3679426e+06   1.7200000e+02
   5.6779546e+05   2.3688649e+06   1.7500000e+02
   5.6779161e+05   2.3697873e+06   3.9800000e+02
   5.6778776e+05   2.3707097e+06   5.1000000e+02
   5.6778392e+05   2.3716320e+06   7.3100000e+02
   5.6778006e+05   2.3725544e+06   8.2600000e+02
   5.6777621e+05   2.3734768e+06   6.4700000e+02
   5.6777236e+05   2.3743991e+06   3.8200000e+02
   5.6776850e+05   2.3753215e+06   3.4400000e+02
   5.6776464e+05   2.3762439e+06   3.9500000e+02
   5.6776079e+05   2.3771662e+06   3.5800000e+02
   5.6775693e+05   2.3780886e+06   2.9000000e+02
   5.6775307e+05   2.3790110e+06   1.4800000e+02
   5.6774920e+05   2.3799333e+06   1.6500000e+02
   5.6774534e+05   2.3808557e+06   9.0000000e+01
   5.6774147e+05   2.3817781e+06   8.0000000e+01
   5.6773761e+05   2.3827005e+06   7.3000000e+01
   5.6773374e+05   2.3836229e+06   6.6000000e+01
   5.6772987e+05   2.3845452e+06   5.8000000e+01
   5.6772600e+05   2.3854676e+06   5.3000000e+01
   5.6772212e+05   2.3863900e+06   5.6000000e+01
   5.6771825e+05   2.3873124e+06   6.6000000e+01
   5.6771437e+05   2.3882348e+06   5.0000000e+01
   5.6771050e+05   2.3891571e+06   5.4000000e+01
   5.6770662e+05   2.3900795e+06   5.2000000e+01
   5.6770274e+05   2.3910019e+06   5.2000000e+01
   5.6769886e+05   2.3919243e+06   5.7000000e+01
   5.6769498e+05   2.3928467e+06   7.2000000e+01
   5.6769109e+05   2.3937691e+06   9.4000000e+01
   5.6768721e+05   2.3946914e+06   1.0400000e+02
   5.6768332e+05   2.3956138e+06   9.1000000e+01
   5.6767943e+05   2.3965362e+06   8.9000000e+01
   5.6767554e+05   2.3974586e+06   8.8000000e+01
   5.6767165e+05   2.3983810e+06   1.1900000e+02
   5.6766776e+05   2.3993034e+06   1.2200000e+02
   5.6766386e+05   2.4002258e+06   1.5200000e+02
   5.6765997e+05   2.4011482e+06   2.2600000e+02
   5.6765607e+05   2.4020706e+06   2.2600000e+02
   5.6765217e+05   2.4029930e+06   2.8000000e+02
   5.6764827e+05   2.4039154e+06   1.1300000e+02
   5.6764437e+05   2.4048378e+06   1.1400000e+02
   5.6764047e+05   2.4057602e+06   9.9000000e+01
   5.6763656e+05   2.4066826e+06   7.7000000e+01
   5.6763266e+05   2.4076050e+06   6.4000000e+01
   5.6762875e+05   2.4085274e+06   6.7000000e+01
   5.6762484e+05   2.4094498e+06   8.2000000e+01
   5.6762093e+05   2.4103722e+06   9.2000000e+01
   5.6761702e+05   2.4112946e+06   1.0300000e+02
   5.6761311e+05   2.4122170e+06   1.1900000e+02
   5.6760920e+05   2.4131394e+06   1.5400000e+02
   5.6760528e+05   2.4140618e+06   1.1600000e+02
   5.6760136e+05   2.4149842e+06   1.1800000e+02
   5.6874833e+05   2.3476544e+06   1.0000000e+01
   5.6874447e+05   2.3485768e+06   1.2000000e+01
   5.6874061e+05   2.3494991e+06   1.0000000e+01
   5.6873674e+05   2.3504214e+06   1.0000000e+01
   5.6873287e+05   2.3513438e+06   1.0000000e+01
   5.6872900e+05   2.3522661e+06   1.1000000e+01
   5.6872513e+05   2.3531885e+06   9.0000000e+00
   5.6872126e+05   2.3541108e+06   9.0000000e+00
   5.6871739e+05   2.3550332e+06   1.1000000e+01
   5.6871352e+05   2.3559555e+06   1.1000000e+01
   5.6870964e+05   2.3568779e+06   1.1000000e+01
   5.6870576e+05   2.3578002e+06   1.2000000e+01
   5.6870189e+05   2.3587226e+06   1.7000000e+01
   5.6869800e+05   2.3596450e+06   2.0000000e+01
   5.6869412e+05   2.3605673e+06   2.3000000e+01
   5.6869024e+05   2.3614897e+06   2.5000000e+01
   5.6868636e+05   2.3624120e+06   4.0000000e+01
   5.6868247e+05   2.3633344e+06   5.0000000e+01
   5.6867858e+05   2.3642567e+06   9.1000000e+01
   5.6867469e+05   2.3651791e+06   8.9000000e+01
   5.6867080e+05   2.3661015e+06   1.5500000e+02
   5.6866691e+05   2.3670238e+06   2.3300000e+02
   5.6866302e+05   2.3679462e+06   3.8600000e+02
   5.6865912e+05   2.3688685e+06   3.0700000e+02
   5.6865523e+05   2.3697909e+06   2.3700000e+02
   5.6865133e+05   2.3707133e+06   3.1300000e+02
   5.6864743e+05   2.3716356e+06   4.1200000e+02
   5.6864353e+05   2.3725580e+06   5.1100000e+02
   5.6863963e+05   2.3734804e+06   5.4800000e+02
   5.6863573e+05   2.3744028e+06   2.1500000e+02
   5.6863182e+05   2.3753251e+06   2.4000000e+02
   5.6862792e+05   2.3762475e+06   2.7900000e+02
   5.6862401e+05   2.3771699e+06   1.6400000e+02
   5.6862010e+05   2.3780922e+06   2.0500000e+02
   5.6861619e+05   2.3790146e+06   1.1700000e+02
   5.6861228e+05   2.3799370e+06   1.0100000e+02
   5.6860836e+05   2.3808594e+06   8.4000000e+01
   5.6860445e+05   2.3817817e+06   8.1000000e+01
   5.6860053e+05   2.3827041e+06   1.4300000e+02
   5.6859662e+05   2.3836265e+06   1.3800000e+02
   5.6859270e+05   2.3845489e+06   6.4000000e+01
   5.6858878e+05   2.3854713e+06   5.3000000e+01
   5.6858485e+05   2.3863936e+06   4.8000000e+01
   5.6858093e+05   2.3873160e+06   6.2000000e+01
   5.6857701e+05   2.3882384e+06   4.6000000e+01
   5.6857308e+05   2.3891608e+06   4.9000000e+01
   5.6856915e+05   2.3900832e+06   4.7000000e+01
   5.6856522e+05   2.3910056e+06   8.8000000e+01
   5.6856129e+05   2.3919279e+06   1.2100000e+02
   5.6855736e+05   2.3928503e+06   1.1000000e+02
   5.6855343e+05   2.3937727e+06   8.3000000e+01
   5.6854949e+05   2.3946951e+06   9.6000000e+01
   5.6854555e+05   2.3956175e+06   7.1000000e+01
   5.6854162e+05   2.3965399e+06   6.0000000e+01
   5.6853768e+05   2.3974623e+06   8.6000000e+01
   5.6853374e+05   2.3983847e+06   1.5400000e+02
   5.6852979e+05   2.3993071e+06   2.1200000e+02
   5.6852585e+05   2.4002295e+06   1.7300000e+02
   5.6852191e+05   2.4011519e+06   2.7800000e+02
   5.6851796e+05   2.4020743e+06   1.5400000e+02
   5.6851401e+05   2.4029966e+06   2.3500000e+02
   5.6851006e+05   2.4039190e+06   1.5300000e+02
   5.6850611e+05   2.4048414e+06   9.8000000e+01
   5.6850216e+05   2.4057638e+06   1.2200000e+02
   5.6849820e+05   2.4066862e+06   8.2000000e+01
   5.6849425e+05   2.4076086e+06   6.4000000e+01
   5.6849029e+05   2.4085311e+06   8.1000000e+01
   5.6848633e+05   2.4094535e+06   9.5000000e+01
   5.6848237e+05   2.4103759e+06   1.0300000e+02
   5.6847841e+05   2.4112983e+06   9.3000000e+01
   5.6847445e+05   2.4122207e+06   9.1000000e+01
   5.6847049e+05   2.4131431e+06   8.7000000e+01
   5.6846652e+05   2.4140655e+06   9.4000000e+01
   5.6846255e+05   2.4149879e+06   1.1000000e+02
   5.6961312e+05   2.3476581e+06   1.2000000e+01
   5.6960921e+05   2.3485804e+06   1.2000000e+01
   5.6960530e+05   2.3495027e+06   1.2000000e+01
   5.6960138e+05   2.3504251e+06   1.0000000e+01
   5.6959747e+05   2.3513474e+06   1.0000000e+01
   5.6959355e+05   2.3522698e+06   1.0000000e+01
   5.6958963e+05   2.3531921e+06   1.2000000e+01
   5.6958571e+05   2.3541145e+06   1.0000000e+01
   5.6958179e+05   2.3550368e+06   9.0000000e+00
   5.6957787e+05   2.3559592e+06   9.0000000e+00
   5.6957394e+05   2.3568815e+06   1.0000000e+01
   5.6957002e+05   2.3578039e+06   1.3000000e+01
   5.6956609e+05   2.3587263e+06   1.7000000e+01
   5.6956216e+05   2.3596486e+06   2.2000000e+01
   5.6955823e+05   2.3605710e+06   3.4000000e+01
   5.6955430e+05   2.3614933e+06   3.7000000e+01
   5.6955036e+05   2.3624157e+06   5.6000000e+01
   5.6954643e+05   2.3633380e+06   1.0100000e+02
   5.6954249e+05   2.3642604e+06   1.9800000e+02
   5.6953856e+05   2.3651828e+06   1.8000000e+02
   5.6953462e+05   2.3661051e+06   1.9200000e+02
   5.6953068e+05   2.3670275e+06   2.2900000e+02
   5.6952673e+05   2.3679499e+06   3.1000000e+02
   5.6952279e+05   2.3688722e+06   4.4400000e+02
   5.6951885e+05   2.3697946e+06   3.4700000e+02
   5.6951490e+05   2.3707170e+06   4.0600000e+02
   5.6951095e+05   2.3716393e+06   4.2300000e+02
   5.6950700e+05   2.3725617e+06   5.5000000e+02
   5.6950305e+05   2.3734841e+06   5.1200000e+02
   5.6949910e+05   2.3744064e+06   2.7100000e+02
   5.6949515e+05   2.3753288e+06   1.4000000e+02
   5.6949119e+05   2.3762512e+06   1.6600000e+02
   5.6948723e+05   2.3771735e+06   1.3000000e+02
   5.6948327e+05   2.3780959e+06   1.7200000e+02
   5.6947932e+05   2.3790183e+06   9.9000000e+01
   5.6947535e+05   2.3799407e+06   9.0000000e+01
   5.6947139e+05   2.3808630e+06   8.2000000e+01
   5.6946743e+05   2.3817854e+06   1.3400000e+02
   5.6946346e+05   2.3827078e+06   3.2500000e+02
   5.6945950e+05   2.3836302e+06   2.4200000e+02
   5.6945553e+05   2.3845526e+06   1.9600000e+02
   5.6945156e+05   2.3854749e+06   1.4100000e+02
   5.6944759e+05   2.3863973e+06   4.9000000e+01
   5.6944361e+05   2.3873197e+06   4.6000000e+01
   5.6943964e+05   2.3882421e+06   4.6000000e+01
   5.6943566e+05   2.3891645e+06   4.6000000e+01
   5.6943169e+05   2.3900869e+06   8.7000000e+01
   5.6942771e+05   2.3910093e+06   2.1700000e+02
   5.6942373e+05   2.3919316e+06   2.2400000e+02
   5.6941974e+05   2.3928540e+06   1.3900000e+02
   5.6941576e+05   2.3937764e+06   7.0000000e+01
   5.6941178e+05   2.3946988e+06   7.3000000e+01
   5.6940779e+05   2.3956212e+06   7.3000000e+01
   5.6940380e+05   2.3965436e+06   1.2000000e+02
   5.6939981e+05   2.3974660e+06   1.3900000e+02
   5.6939582e+05   2.3983884e+06   2.2400000e+02
   5.6939183e+05   2.3993108e+06   2.8100000e+02
   5.6938784e+05   2.4002332e+06   2.9200000e+02
   5.6938384e+05   2.4011556e+06   2.9900000e+02
   5.6937985e+05   2.4020780e+06   1.4000000e+02
   5.6937585e+05   2.4030004e+06   1.3000000e+02
   5.6937185e+05   2.4039228e+06   1.9200000e+02
   5.6936785e+05   2.4048452e+06   8.4000000e+01
   5.6936385e+05   2.4057676e+06   9.9000000e+01
   5.6935985e+05   2.4066900e+06   8.8000000e+01
   5.6935584e+05   2.4076124e+06   6.7000000e+01
   5.6935183e+05   2.4085348e+06   7.5000000e+01
   5.6934783e+05   2.4094572e+06   8.2000000e+01
   5.6934382e+05   2.4103796e+06   8.5000000e+01
   5.6933981e+05   2.4113020e+06   8.9000000e+01
   5.6933579e+05   2.4122244e+06   8.4000000e+01
   5.6933178e+05   2.4131468e+06   8.3000000e+01
   5.6932776e+05   2.4140692e+06   8.6000000e+01
   5.6932375e+05   2.4149916e+06   9.2000000e+01
   5.7047791e+05   2.3476617e+06   1.2000000e+01
   5.7047395e+05   2.3485841e+06   1.2000000e+01
   5.7046999e+05   2.3495064e+06   1.1000000e+01
   5.7046603e+05   2.3504288e+06   1.1000000e+01
   5.7046206e+05   2.3513511e+06   1.1000000e+01
   5.7045810e+05   2.3522735e+06   1.3000000e+01
   5.7045413e+05   2.3531958e+06   1.4000000e+01
   5.7045016e+05   2.3541182e+06   1.0000000e+01
